# .PCD v0.7 - Point Cloud Data file format
VERSION 0.7
FIELDS x y z
SIZE 4 4 4
TYPE F F F
COUNT 1 1 1
WIDTH 1374
HEIGHT 1
VIEWPOINT 0 0 0 1 0 0 0
POINTS 1374
DATA ascii
188764.81 6363088.5 138198.17
188768 6363090 138224.83
188767.84 6363090 138224.86
188767.69 6363090 138224.84
188767.53 6363090 138224.84
188765.89 6363089 138224.89
188765.14 6363088 138224.95
188765.05 6363088 138224.91
188764.92 6363087.5 138224.95
188764.97 6363086.5 138224.88
188746.63 6363083 138201.19
188740.8 6363083 138198.3
188740.5 6363083 138198.36
188740.27 6363083 138198.33
188733.09 6363083 138200.77
188738.72 6363083 138223.3
188739.2 6363083 138227.2
188753.64 6363083 138237.16
188798.19 6363083.5 138225.13
188798.19 6363084.5 138225.11
188798.14 6363084.5 138225.06
188798.19 6363086 138225.16
188798.17 6363086 138225.03
188798.03 6363083.5 138199.88
188797.92 6363083.5 138199.83
188798.08 6363086.5 138200.05
188797.42 6363088 138200.19
188797.31 6363088 138200.17
188767.86 6363089.5 138224.55
188767.69 6363089.5 138224.59
188766.38 6363089.5 138224.83
188766.25 6363089.5 138224.88
188766.2 6363089.5 138224.89
188765.72 6363089 138224.89
188765.63 6363089 138224.92
188765.17 6363088 138224.91
188765.16 6363088 138224.94
188765.14 6363088 138224.97
188765.03 6363087.5 138224.91
188764.97 6363087.5 138224.89
188764.91 6363086.5 138224.89
188764.89 6363086.5 138224.92
188764.88 6363086 138224.94
188764.94 6363086 138224.8
188740.61 6363083.5 138198.22
188740.5 6363083.5 138198.28
188754.23 6363083 138221.61
188730.97 6363083 138209.8
188748.66 6363083 138224.09
188748.61 6363083 138224.16
188748.55 6363083 138224.22
188738.94 6363083 138222.75
188737.34 6363083 138223.41
188739.56 6363083 138227.78
188753.8 6363083 138237.3
188753.77 6363083 138237.36
188798.14 6363083.5 138225.05
188798.17 6363083.5 138224.98
188798.14 6363084.5 138225.08
188798.19 6363085 138225.14
188798.16 6363085.5 138225.03
188798.13 6363086.5 138225.17
188798.03 6363086.5 138225.08
188798.08 6363084 138199.91
188798.11 6363086 138200.02
188797.92 6363087 138200.08
188796.91 6363088 138200.25
188792.48 6363084 138197.11
188792.53 6363084 138196.27
188767.83 6363090 138224.59
188767.7 6363089.5 138224.73
188767.58 6363089.5 138224.77
188767.47 6363089.5 138224.75
188767.41 6363089.5 138224.75
188767.38 6363089.5 138224.77
188767.33 6363089.5 138224.77
188767.16 6363089.5 138224.8
188767.06 6363089.5 138224.8
188766.97 6363089.5 138224.81
188766.89 6363089.5 138224.83
188766.11 6363089.5 138224.86
188746.88 6363083 138197.27
188766.05 6363089 138224.94
188765.64 6363089 138224.91
188765.59 6363089 138224.95
188744.81 6363083 138198.39
188746.97 6363083 138201.09
188765.34 6363088.5 138224.92
188764.98 6363087.5 138224.89
188740.3 6363083 138198.36
188764.94 6363086.5 138224.89
188764.92 6363086.5 138224.89
188764.89 6363086.5 138224.91
188764.88 6363086 138224.91
188744.03 6363083 138205.2
188747.42 6363083 138216.52
188731.05 6363083 138209.78
188748.58 6363083 138224.19
188748.59 6363083 138224.27
188738.67 6363083 138223.28
188798.19 6363084 138224.97
188798.17 6363084.5 138225.02
188798.2 6363085.5 138225.16
188798.13 6363085.5 138225.11
188798.13 6363085.5 138225.05
188797.89 6363087 138225.19
188797.84 6363087 138225.08
188797.78 6363087.5 138200.11
188796.28 6363088.5 138200.33
188796.03 6363088.5 138200.34
188795.48 6363088.5 138200.3
188792.55 6363084 138196.84
188792.53 6363084 138196.64
188792.53 6363084 138196.44
188792.53 6363084 138196.23
188792.52 6363084 138196.02
188792.53 6363084 138195.75
188792.52 6363084 138195.58
188792.44 6363084 138194.83
188792.5 6363084 138194
188764.69 6363087 138198.2
188748.11 6363083 138200.08
188748 6363083 138200.09
188765.34 6363088.5 138224.94
188741.11 6363083 138202.78
188744.11 6363083 138205.39
188765.05 6363088 138224.86
188765.06 6363087.5 138224.91
188764.98 6363087 138224.95
188764.92 6363087 138224.91
188764.95 6363086.5 138224.86
188764.92 6363086.5 138224.92
188764.95 6363086 138224.88
188764.92 6363086 138224.91
188764.92 6363086 138224.94
188764.95 6363086 138224.86
188764.92 6363086 138224.88
188731.2 6363083 138210.11
188730.89 6363083 138210.09
188730.61 6363083 138210.11
188730.27 6363083 138210.08
188749.3 6363083 138219.47
188751.89 6363083 138223.05
188748.53 6363083 138224.31
188739.05 6363083 138222.67
188738.77 6363083 138222.83
188739.23 6363083 138227.28
188739.61 6363083 138227.83
188754.11 6363083 138233.06
188753.61 6363083 138237.22
188753.67 6363083 138237.27
188753.81 6363083 138237.34
188798.25 6363083 138225.09
188798.17 6363083 138225
188798.13 6363084 138225.08
188798.16 6363086 138225.05
188797.63 6363087 138225.16
188798.05 6363086.5 138200.03
188795.94 6363088.5 138200.33
188792.44 6363083 138195.38
188792.44 6363083 138195.17
188792.44 6363083 138194.98
188792.45 6363083 138194.77
188792.44 6363083 138194.56
188792.45 6363083 138194.34
188792.45 6363083 138194.14
188792.44 6363083 138193.95
188792.44 6363083 138193.73
188792.45 6363083 138193.5
188792.45 6363083 138193.28
188792.45 6363083 138193.06
188792.53 6363084 138193.22
188764.7 6363087.5 138198.19
188744.63 6363083 138196.95
188736.73 6363083 138199.94
188738.41 6363083 138204.02
188730.05 6363083 138201.86
188764.97 6363086.5 138224.88
188764.97 6363086.5 138224.89
188764.97 6363086.5 138224.92
188764.95 6363086.5 138224.86
188730.95 6363083 138209.56
188764.94 6363086 138224.83
188764.94 6363086 138224.86
188764.92 6363086 138224.91
188754.39 6363083 138222.16
188738.69 6363083 138223.23
188748.53 6363083 138224.33
188749.16 6363083 138224.45
188739.92 6363083 138229.7
188746.53 6363083 138229.42
188798.17 6363084 138224.98
188798.17 6363084.5 138225.09
188798.2 6363085 138225.03
188798.19 6363085.5 138225.13
188798.05 6363086.5 138225.13
188797.89 6363087 138225.13
188798.09 6363085 138200
188798.05 6363086 138199.98
188798.11 6363086.5 138200.06
188798.03 6363086.5 138200.03
188797.64 6363087.5 138200.09
188795.7 6363088.5 138200.36
188795.56 6363088.5 138200.41
188795.48 6363088.5 138200.36
188792.47 6363084 138197.19
188792.5 6363084 138196.84
188792.47 6363083 138196.13
188792.47 6363083 138195.95
188792.5 6363084 138196.19
188792.47 6363083 138195.61
188792.47 6363083.5 138195.44
188792.48 6363083.5 138195.25
188792.45 6363084 138195.42
188792.47 6363084 138195.22
188792.47 6363084 138195.03
188765.06 6363089 138198.27
188746.88 6363083 138197.09
188744.83 6363083 138197.98
188744.75 6363083 138198.31
188742.48 6363083 138198.55
188743.19 6363083 138199.47
188748.14 6363083 138216.56
188747.42 6363083 138216.52
188749.3 6363083 138219.61
188752.03 6363083 138223.13
188748.63 6363083 138224.22
188739 6363083 138230.61
188798.16 6363083 138225.06
188798.16 6363083 138225
188798.2 6363083.5 138225.06
188798.08 6363085 138225.03
188798.2 6363085.5 138225.03
188798.2 6363086 138225.03
188798.03 6363086.5 138225.14
188798.03 6363086 138199.98
188797.7 6363087.5 138200.08
188796.63 6363088.5 138200.27
188796.53 6363088.5 138200.25
188792.45 6363083 138196.22
188792.5 6363083.5 138196.44
188792.5 6363083.5 138196
188792.48 6363083.5 138195.89
188767.14 6363091 138147.7
188746.8 6363083 138197.31
188744.67 6363083 138198.38
188744.42 6363083 138198.31
188742.41 6363083 138198.67
188741.16 6363083 138202.67
188741.13 6363083 138202.78
188732.25 6363083 138200.78
188740.95 6363083 138207.08
188736.42 6363083 138208.7
188748.19 6363083 138216.55
188739.7 6363083 138218.16
188740.08 6363083 138218.55
188738.78 6363083 138223.27
188749.14 6363083 138224.05
188798.13 6363083.5 138224.95
188798.22 6363085 138225.02
188798.08 6363085 138199.97
188797.94 6363087 138200.09
188795.09 6363089 138200.52
188794.94 6363089 138200.45
188797.77 6363084.5 138173.19
188767.78 6363090.5 138198.34
188767.59 6363090.5 138198.39
188767.38 6363090.5 138198.38
188767.16 6363090.5 138198.33
188764.67 6363087 138198.19
188747.98 6363083 138200.13
188745.83 6363083 138200.95
188744.13 6363083 138205.42
188743.84 6363083 138205.47
188731.08 6363083.5 138209.7
188748.17 6363083 138216.52
188738.75 6363083 138223.23
188738.73 6363083 138223.33
188798.22 6363083 138225.08
188798.06 6363086 138199.97
188797.58 6363087.5 138200.11
188796.55 6363088.5 138200.23
188797.33 6363088 138173.36
188764.89 6363088.5 138198.2
188764.73 6363088 138198.22
188764.67 6363086.5 138198.19
188748.08 6363083 138196.16
188746.88 6363083 138197.3
188744.75 6363083 138197.48
188748.09 6363083 138200.11
188741.95 6363083 138198.11
188742.41 6363083 138198.58
188740.63 6363083.5 138198.22
188746.58 6363083 138201.17
188749.13 6363083 138204.09
188736.73 6363083 138199.83
188736.59 6363083 138199.89
188736.42 6363083 138199.94
188740.3 6363083 138203.02
188730.08 6363083 138201.86
188730.89 6363083.5 138209.75
188731.02 6363083 138210.22
188748.08 6363083 138216.55
188738.75 6363083 138222.8
188740.27 6363083 138225.84
188754.45 6363083 138222.19
188739.63 6363083 138227.89
188797.98 6363085 138199.88
188797.97 6363087 138200.08
188797.47 6363088 138200.14
188797.39 6363088 138200.13
188797.33 6363088 138200.08
188796.23 6363088.5 138200.31
188796.05 6363088.5 138200.28
188797.78 6363085 138173.25
188797.67 6363087.5 138173.19
188795.36 6363089 138173.53
188787.27 6363084.5 138167.2
188786.91 6363084.5 138167.13
188767.7 6363090.5 138198.39
188767.55 6363090.5 138198.39
188767.36 6363090.5 138198.36
188765.59 6363089.5 138198.25
188765.11 6363089 138198.25
188764.91 6363088.5 138198.17
188764.69 6363087.5 138198.2
188764.66 6363086.5 138198.19
188744.58 6363083 138197.02
188745.17 6363083 138197.63
188745.05 6363083 138197.66
188745.16 6363083 138197.8
188741.61 6363083 138197.83
188731.84 6363083.5 138201.38
188731.81 6363083 138201.47
188731.83 6363083 138201.83
188743.94 6363083 138205.63
188736.56 6363083 138208.72
188736.44 6363083 138208.78
188731.08 6363083 138209.88
188731.09 6363083 138210.08
188746.13 6363083 138212.78
188747.61 6363083 138216.41
188748.16 6363083 138216.48
188740.06 6363083 138218.58
188740.08 6363083 138218.66
188739.81 6363083 138218.8
188798.09 6363085 138199.98
188798.05 6363085.5 138199.94
188798.03 6363086 138199.86
188797.89 6363087 138200
188797.44 6363088 138200.09
188796.39 6363088.5 138200.23
188797.73 6363083.5 138173.17
188797.88 6363085.5 138173.28
188797.31 6363088 138173.36
188788.23 6363084 138169.8
188787.91 6363084 138169.78
188787.53 6363084 138169.84
188787.2 6363084 138169.8
188786.88 6363084 138169.78
188786.56 6363084 138169.72
188786.39 6363084 138169.06
188765.89 6363090 138198.22
188765.28 6363089.5 138198.23
188765.02 6363089 138198.2
188764.7 6363088 138198.22
188764.69 6363086.5 138198.13
188748 6363083 138200.13
188742.98 6363083 138199.25
188743.05 6363083 138199.47
188747.84 6363083 138201.56
188737.11 6363083 138199.48
188734.45 6363083 138200.28
188734.58 6363083 138200.42
188744.02 6363083 138205.73
188743.95 6363083 138205.81
188732.48 6363083 138206.03
188730.91 6363083 138209.55
188737.39 6363083 138223.39
188738.8 6363083 138223.3
188798 6363084.5 138199.8
188798.02 6363085 138199.89
188798.08 6363085.5 138199.97
188794.94 6363089 138200.23
188797.81 6363083 138173.23
188797.89 6363085 138173.23
188797.8 6363087.5 138173.31
188796.48 6363088.5 138173.47
188797.09 6363088.5 138146.53
188786.41 6363084 138170.86
188767.33 6363090 138198.3
188767.16 6363090 138198.27
188767 6363090 138198.25
188766.55 6363090 138198.28
188766.45 6363090 138198.3
188764.7 6363087.5 138198.16
188764.66 6363087 138198.2
188764.69 6363087 138198.16
188764.69 6363086.5 138198.14
188744.75 6363083 138197.56
188744.72 6363083 138197.64
188745.31 6363083 138197.94
188740.56 6363083.5 138198.31
188740.52 6363083.5 138198.38
188742.5 6363083 138198.61
188746.95 6363083 138201.2
188746.72 6363083 138201.22
188738.36 6363083 138204.03
188738.34 6363083 138204.13
188736.47 6363083 138208.67
188729.91 6363083 138210.63
188739.86 6363083 138218.58
188797.97 6363084 138199.77
188798 6363084.5 138199.92
188798.06 6363085.5 138199.86
188798.06 6363086.5 138199.97
188797.94 6363087 138199.98
188797.08 6363088 138200.19
188795.84 6363088.5 138200.27
188797.75 6363084 138173.22
188797.77 6363085 138173.17
188797.84 6363086 138173.25
188797.92 6363087 138173.31
188797.83 6363087 138173.25
188797.45 6363088 138173.41
188786.23 6363083.5 138168.83
188786.3 6363084 138168.81
188767.25 6363091.5 138147.67
188766.78 6363091 138147.63
188767.8 6363090 138198.33
188767.42 6363090 138198.39
188767.38 6363090 138198.38
188767.19 6363090.5 138198.34
188766.23 6363090 138198.25
188766.05 6363090 138198.31
188765.61 6363089.5 138198.23
188765.53 6363089.5 138198.28
188765.48 6363089.5 138198.28
188765.25 6363089.5 138198.2
188765.23 6363089.5 138198.22
188764.88 6363088.5 138198.19
188764.77 6363088 138198.2
188764.73 6363088 138198.23
188764.72 6363087.5 138198.22
188764.64 6363087 138198.22
188746.86 6363083 138197.2
188744.89 6363083 138198.03
188747.98 6363083 138200.14
188745.84 6363083 138200.88
188746.89 6363083 138201.19
188746.69 6363083 138201.23
188734.48 6363083 138200.31
188731.8 6363083.5 138201.38
188731.09 6363083 138209.73
188798 6363083 138199.84
188797.98 6363083 138199.67
188798.02 6363083.5 138199.83
188798.02 6363085.5 138199.86
188797.8 6363087.5 138200.05
188797.77 6363087.5 138199.98
188797.31 6363088 138200.05
188795.45 6363088.5 138200.45
188795.42 6363088.5 138200.34
188795.25 6363089 138200.22
188797.7 6363083.5 138173.17
188797.81 6363084.5 138173.2
188797.7 6363085.5 138173.38
188786.22 6363083 138170.47
188786.25 6363083 138169.53
188786.25 6363083 138168.89
188786.23 6363083 138168.33
188786.38 6363085 138168.63
188786.23 6363083.5 138167.05
188786.23 6363083.5 138166.05
188786.22 6363083.5 138165.38
188765.02 6363089 138198.22
188764.84 6363088 138198.19
188764.77 6363088 138198.2
188764.75 6363088 138198.23
188764.73 6363088 138198.27
188764.69 6363087.5 138198.25
188764.72 6363087 138198.17
188764.7 6363087 138198.16
188746.8 6363083 138197.22
188744.27 6363083 138198.17
188740.39 6363083 138198.27
188749.03 6363083 138200.22
188736.67 6363083 138199.92
188745.86 6363083 138200.97
188732.88 6363083 138201.3
188740.25 6363083 138203.13
188740.98 6363083 138203.2
188740.94 6363083 138203.3
188741.47 6363083 138206.53
188741.53 6363083 138206.61
188736.5 6363083 138208.48
188736.48 6363083 138208.67
188798 6363084 138199.86
188797.97 6363084 138199.81
188797.98 6363084.5 138199.86
188798 6363085 138199.89
188798.05 6363086 138199.95
188798.05 6363086 138199.89
188797.91 6363087 138200
188797.92 6363087 138199.94
188797.52 6363087.5 138200.03
188797.08 6363088 138200.11
188795.41 6363089 138200.39
188797.64 6363083 138173.14
188797.75 6363084.5 138173.27
188797.88 6363085.5 138173.27
188797.88 6363086.5 138173.3
188796.95 6363088.5 138173.44
188786.25 6363083 138169.45
188786.23 6363083 138168.69
188786.25 6363083 138167.86
188786.23 6363083 138167.36
188786.25 6363083 138166.38
188786.27 6363083 138165.44
188786.27 6363083 138164.47
188764.45 6363087.5 138172.86
188764.72 6363087.5 138198.14
188764.73 6363087.5 138198.2
188764.72 6363087 138198.16
188764.7 6363087 138198.2
188764.7 6363086.5 138198.16
188764.77 6363086.5 138198.17
188764.75 6363086.5 138198.2
188744.73 6363083 138197.8
188748.59 6363083 138200.02
188732.98 6363083 138200.81
188732.92 6363083 138200.92
188746.72 6363083 138201.23
188744.11 6363083 138205.3
188730.89 6363083.5 138209.86
188798.03 6363083 138199.84
188797.98 6363084.5 138199.83
188798.02 6363084.5 138199.77
188798.05 6363085 138199.83
188798.05 6363085.5 138199.92
188798.02 6363085.5 138199.86
188798.03 6363086 138199.98
188798.03 6363086 138199.88
188798.03 6363086.5 138199.98
188798.05 6363086.5 138199.92
188797.78 6363083 138173.19
188797.78 6363084 138173.23
188797.73 6363084 138173.16
188797.84 6363084.5 138173.23
188797.8 6363085.5 138173.2
188797.03 6363088 138173.39
188786.23 6363083 138168.94
188786.27 6363083 138167.97
188786.25 6363083 138167.27
188786.25 6363083 138166.75
188786.25 6363083 138166.3
188786.31 6363084 138166.03
188746.88 6363083 138197.31
188744.81 6363083.5 138197.72
188744.83 6363083.5 138197.8
188744.55 6363083 138198.41
188744.73 6363083 138198.47
188730.22 6363083 138201.89
188730.09 6363083 138202.02
188746.64 6363083 138201.08
188740.3 6363083 138203.11
188798.02 6363083.5 138199.67
188797.86 6363084 138199.77
188798.05 6363085 138199.83
188798.06 6363086 138199.95
188798.05 6363086 138199.89
188798.08 6363086 138199.84
188798.05 6363086.5 138200
188797.88 6363085.5 138173.3
188797.25 6363088 138173.38
188786.44 6363084.5 138171.59
188786.47 6363084.5 138171.05
188767.36 6363091 138172.94
188767.14 6363091 138172.94
188732.52 6363083 138201.06
188732.88 6363083 138201.44
188798.05 6363084 138199.7
188797.44 6363088 138173.34
188786.42 6363084.5 138171.97
188786.38 6363083.5 138171.13
188786.33 6363083 138170.72
188786.42 6363085 138171.58
188786.44 6363085 138171.44
188786.45 6363085 138171.25
188786.41 6363084.5 138170.72
188764.95 6363089.5 138172.91
188764.48 6363088.5 138172.89
188764.42 6363087 138172.91
188727.42 6363083 138157.66
188744.59 6363083 138197.53
188744.8 6363083 138197.64
188730.98 6363083 138209.77
188798.05 6363083 138199.69
188797.98 6363083.5 138199.77
188798.41 6363087 138172.83
188797.59 6363087.5 138173.27
188796.89 6363088.5 138173.42
188796.8 6363088.5 138173.41
188796.72 6363088.5 138173.38
188797.61 6363085 138146.45
188797.58 6363087.5 138146.42
188767.23 6363091.5 138147.61
188765.59 6363090.5 138172.88
188764.56 6363088.5 138172.89
188764.45 6363087.5 138172.92
188738.86 6363083 138136.03
188728.05 6363083 138141.56
188727.92 6363083 138141.67
188797.84 6363086.5 138173.2
188797.8 6363087 138173.22
188797.38 6363088 138173.27
188796.27 6363088.5 138173.42
188796.16 6363088.5 138173.42
188796.11 6363088.5 138173.38
188797.55 6363084.5 138146.44
188797.58 6363087 138146.41
188796.13 6363089.5 138146.72
188765.44 6363090 138172.89
188764.64 6363089 138172.78
188764.66 6363089 138172.89
188764.63 6363089 138172.92
188764.56 6363088.5 138172.88
188764.48 6363088 138172.88
188764.45 6363087 138172.86
188764.42 6363087 138172.88
188731.17 6363083 138143.02
188745.38 6363083 138198.06
188744.8 6363083 138198.45
188797.83 6363086 138173.2
188797.83 6363086.5 138173.16
188797.75 6363087 138173.28
188797.72 6363087.5 138173.23
188797.27 6363088 138173.25
188796.31 6363088.5 138173.44
188797.52 6363083 138146.36
188797.47 6363084.5 138146.39
188797.64 6363087.5 138146.53
188797 6363089 138146.61
188767.44 6363091 138172.95
188767.28 6363091 138172.95
188767.13 6363091 138172.94
188765.5 6363090.5 138172.88
188764.61 6363089 138172.86
188764.58 6363089 138172.91
188764.52 6363088.5 138172.89
188764.48 6363087.5 138172.84
188764.45 6363087 138172.86
188731.08 6363083 138139.66
188730.08 6363083 138139.31
188797.75 6363083.5 138173.2
188797.73 6363083.5 138173.16
188797.8 6363084 138173.22
188797.78 6363084.5 138173.2
188797.8 6363085.5 138173.17
188797.78 6363086 138173.13
188797.83 6363086.5 138173.22
188797.77 6363087 138173.28
188797.75 6363087 138173.22
188797.56 6363083 138146.38
188797.44 6363084 138146.34
188797.59 6363086 138146.42
188797.64 6363087 138146.5
188797.56 6363088 138146.58
188765 6363090.5 138147.63
188764.17 6363087 138147.58
188767.41 6363091 138172.94
188767.38 6363090.5 138172.98
188765.27 6363090 138172.84
188765.17 6363090 138172.92
188764.86 6363089.5 138172.92
188764.58 6363089 138172.88
188764.48 6363088.5 138172.88
188764.47 6363088.5 138172.92
188764.45 6363088 138172.88
188764.45 6363087.5 138172.84
188764.44 6363087 138172.84
188764.41 6363087 138172.88
188731.02 6363083 138142.86
188797.78 6363084 138173.16
188797.81 6363084.5 138173.2
188797.75 6363084.5 138173.16
188797.75 6363084.5 138173.09
188797.78 6363086 138173.17
188797.81 6363086.5 138173.2
188797.84 6363086.5 138173.13
188797.02 6363088.5 138173.38
188797.48 6363084.5 138146.42
188797.27 6363083.5 138146.03
188797.55 6363086.5 138146.45
188797.64 6363087.5 138146.5
188797.2 6363088.5 138146.56
188795.36 6363089.5 138146.83
188795 6363090 138146.86
188764.69 6363090 138147.61
188767.61 6363090.5 138172.89
188767.56 6363090.5 138172.91
188767.53 6363090.5 138172.92
188767.5 6363090.5 138172.94
188767.45 6363090.5 138172.94
188767.42 6363090.5 138172.94
188767.38 6363090.5 138172.95
188767.27 6363090.5 138172.95
188766.13 6363090.5 138172.86
188766 6363090.5 138172.89
188765.5 6363090.5 138172.83
188765.5 6363090 138172.86
188765.45 6363090 138172.88
188764.88 6363089.5 138172.84
188764.89 6363089.5 138172.91
188734.58 6363083 138139.33
188764.67 6363089 138172.88
188764.56 6363088.5 138172.91
188731.13 6363083.5 138139.55
188764.5 6363088.5 138172.86
188764.44 6363088 138172.91
188764.45 6363087.5 138172.91
188764.44 6363087.5 138172.88
188764.41 6363087 138172.91
188764.42 6363087 138172.88
188727.41 6363083 138145.3
188727.41 6363083 138157.66
188797.7 6363083 138173.09
188797.73 6363083 138173.03
188797.75 6363083.5 138173.06
188797.81 6363086 138173.25
188797.78 6363086 138173.14
188797.8 6363087 138173.22
188797.67 6363087.5 138173.25
188797.28 6363088 138173.27
188795.38 6363089 138173.53
188795.25 6363089 138173.5
188797.55 6363083 138146.44
188797.13 6363083 138146.2
188797.59 6363085 138146.44
188797.64 6363084 138145.67
188797.08 6363083.5 138145.77
188797.92 6363086 138145.95
188797.5 6363086 138146.41
188796.91 6363089 138146.55
188787.94 6363085 138135.42
188787.59 6363085 138135.44
188787.13 6363085 138135.45
188786.8 6363085 138135.42
188786.42 6363085 138135.14
188767.09 6363091.5 138147.63
188766.84 6363091.5 138147.67
188764.39 6363089.5 138147.63
188738.48 6363083 138136.81
188727.31 6363083 138142.19
188727.25 6363083 138142.33
188764.7 6363089 138172.86
188764.55 6363088.5 138172.94
188764.55 6363088.5 138172.86
188764.52 6363088.5 138172.89
188764.56 6363088 138172.89
188764.58 6363088 138172.92
188764.5 6363087.5 138172.86
188764.48 6363087.5 138172.91
188764.47 6363087.5 138172.86
188764.45 6363087.5 138172.88
188764.48 6363087 138172.84
188764.47 6363087 138172.88
188797.72 6363083 138173.08
188797.78 6363084 138173.06
188797.75 6363085 138173.17
188797.81 6363086 138173.22
188797.78 6363087 138173.14
188797.52 6363087.5 138173.23
188796.97 6363088 138173.33
188796.95 6363088 138173.28
188795.03 6363089 138173.56
188794.91 6363089 138173.53
188797.44 6363083.5 138146.39
188797.58 6363084.5 138146.42
188797.22 6363083 138145.73
188797.5 6363085.5 138146.41
188797.03 6363084 138145.73
188797.53 6363086 138146.42
188797.61 6363087 138146.48
188796.8 6363089 138146.64
188786.84 6363084.5 138137.98
188786.45 6363084.5 138137.91
188786.2 6363085 138135.16
188786.05 6363085 138135.02
188767.03 6363091.5 138147.7
188766.77 6363091.5 138147.66
188742.45 6363083 138127.61
188742.36 6363083 138127.7
188736.22 6363083 138136.66
188731.19 6363083 138139.23
188764.5 6363087 138172.88
188797.72 6363083 138173.02
188797.78 6363085 138173.19
188797.83 6363085.5 138173.17
188797.81 6363085.5 138173.11
188797.78 6363087 138173.13
188797.36 6363088 138173.28
188797.47 6363083 138146.38
188797.39 6363083 138146.33
188797.16 6363083 138146.22
188797.52 6363084.5 138146.44
188797.69 6363084 138145.64
188797.13 6363083 138145.7
188797.56 6363085.5 138146.44
188797.25 6363084 138145.77
188797.52 6363086.5 138146.41
188797.53 6363087 138146.44
188796.73 6363089 138146.61
188786.22 6363084.5 138137.61
188786.3 6363085.5 138137.56
188786.02 6363084 138136.88
188786.09 6363084.5 138136.52
188786.08 6363085 138135.19
188767.39 6363091 138147.64
188767.17 6363091 138147.7
188766.94 6363091 138147.67
188766.67 6363091 138147.61
188766.44 6363091 138147.61
188765.91 6363091 138147.63
188746.88 6363083 138125.81
188743.02 6363083 138125.59
188743.63 6363083 138127.38
188742.16 6363083 138131.3
188738.53 6363083 138135.94
188738.56 6363083 138136.5
188731.13 6363083.5 138139.67
188731.27 6363083 138140.27
188731.08 6363083 138140.28
188730.83 6363083 138140.59
188731.34 6363083 138144.11
188731.19 6363083 138144.3
188727.28 6363083 138144.3
188727.36 6363083 138144.5
188731.19 6363083 138147.11
188731.17 6363083 138147.23
188797.73 6363083 138173.16
188797.69 6363083 138173.09
188797.73 6363083.5 138173.13
188797.73 6363083.5 138173.08
188797.75 6363083.5 138173.03
188797.81 6363084 138173.03
188797.7 6363085.5 138173.11
188797.89 6363086.5 138173.13
188797.2 6363083.5 138146.2
188797.17 6363083.5 138146.14
188797.56 6363084.5 138146.47
188797.3 6363083.5 138145.75
188797.53 6363084 138145.7
188797.27 6363084 138145.86
188797.25 6363084 138145.78
188797.06 6363084 138145.73
188796.98 6363089 138146.64
188794.94 6363090 138146.94
188794.58 6363090 138146.98
188794.38 6363090 138146.84
188786.05 6363083.5 138138.34
188786.03 6363083.5 138137.61
188786.02 6363083.5 138136.88
188785.98 6363084 138136.09
188786 6363084 138135.2
188786.06 6363084.5 138134.61
188764.2 6363087 138147.56
188738.55 6363083 138137.7
188738.41 6363083 138137.89
188731.19 6363083 138144.44
188731.3 6363083 138144.66
188726.17 6363083 138144.77
188797.72 6363083 138173.06
188797.77 6363083 138173.02
188797.8 6363084 138173.02
188797.81 6363085 138173.17
188797.8 6363085 138173.11
188797.83 6363085 138173.06
188797.56 6363084 138146.44
188797.48 6363084 138146.31
188797.55 6363084.5 138146.44
188797.27 6363083.5 138145.78
188797.2 6363084 138145.72
188797.64 6363087 138146.48
188797.53 6363088 138146.44
188786.03 6363083.5 138137.09
188786.05 6363083.5 138136.08
188786.05 6363083.5 138135.36
188786.02 6363083.5 138134.67
188786.03 6363084 138133.84
188786.02 6363084 138133.02
188767.36 6363091 138147.67
188767.17 6363091 138147.69
188766.95 6363091 138147.67
188766.72 6363091 138147.56
188764.55 6363090 138147.66
188764.25 6363087.5 138147.58
188764.19 6363087 138147.63
188745.39 6363083 138126.03
188742.66 6363083 138126.8
188742.67 6363083 138127.58
188742.11 6363083 138127.11
188742.28 6363083 138132.09
188738.78 6363083 138135.58
188738.69 6363083 138135.81
188738.86 6363083 138136.11
188742.58 6363083 138139.61
188731.17 6363083 138138.98
188734.81 6363083 138141.91
188729.05 6363083 138141.19
188726.3 6363083 138142.33
188727.52 6363083 138145.97
188727.45 6363083 138157.69
188797.78 6363083 138173.14
188797.77 6363084 138173.09
188797.53 6363083 138146.41
188797.52 6363084 138146.42
188797.16 6363083 138146.16
188797.53 6363084.5 138146.42
188797.3 6363084 138145.97
188797.23 6363084 138145.91
188797.27 6363084 138145.8
188797.55 6363086 138146.41
188797.59 6363086.5 138146.45
188797.58 6363087.5 138146.45
188797.39 6363088 138146.48
188796.83 6363089 138146.64
188795.02 6363090 138146.88
188794.63 6363090 138146.94
188794.39 6363090 138146.86
188794.34 6363090 138146.81
188786.05 6363083.5 138134.52
188786.03 6363083.5 138133.42
188767.05 6363091 138147.67
188765.8 6363091 138147.63
188765.64 6363091 138147.67
188764.63 6363090 138147.61
188764.25 6363089 138147.61
188747.44 6363083 138119.55
188746.38 6363083 138125.34
188743.08 6363083 138125.47
188734.69 6363083 138138.66
188734.7 6363083 138138.8
188734.69 6363083 138138.94
188730.91 6363083 138139.39
188797.45 6363083.5 138146.38
188797.22 6363084 138146.03
188797.19 6363084 138145.72
188797.55 6363085.5 138146.44
188797.63 6363087 138146.48
188797.58 6363087 138146.44
188797.56 6363088 138146.45
188797.22 6363088.5 138146.5
188797.16 6363088.5 138146.47
188796.41 6363089.5 138146.64
188786.14 6363084 138138.73
188786.16 6363084.5 138138.72
188786.14 6363084 138138.25
188786.2 6363085.5 138139.19
188786.22 6363085 138138.67
188786.2 6363085 138138.55
188786.22 6363085 138138.39
188786.2 6363085 138138.27
188786.23 6363085 138138.05
188786.22 6363085 138137.91
188786.23 6363085 138137.73
188786.17 6363084 138136.78
188786.17 6363084.5 138137.02
188786.23 6363085 138137.06
188786.25 6363085.5 138136.73
188784.28 6363084 138133.03
188784.03 6363084 138133.08
188783.81 6363084 138133.05
188767.27 6363091.5 138147.72
188767.09 6363091.5 138147.72
188766.92 6363091.5 138147.72
188765.28 6363090.5 138147.63
188764.52 6363089.5 138147.61
188764.3 6363089 138147.58
188748.14 6363083 138119.31
188748.11 6363083 138119.5
188764.28 6363088.5 138147.58
188764.17 6363087 138147.58
188742.61 6363083 138126.73
188742.53 6363083 138127.16
188742.34 6363083 138131.13
188737.63 6363083 138135.88
188735.61 6363083 138137.16
188736.7 6363083 138138.19
188731.27 6363083 138139.5
188729.98 6363083 138139.28
188731.44 6363083 138142.75
188731.08 6363083.5 138143.81
188734.86 6363083 138146.52
188727.7 6363083 138145.86
188797.48 6363088 138146.55
188797.5 6363088 138146.47
188797.47 6363088 138146.41
188797.09 6363088.5 138146.48
188796.23 6363089.5 138146.59
188794.39 6363090 138146.92
188794.38 6363090 138146.84
188786.13 6363083.5 138138.89
188786.13 6363083.5 138138.66
188786.16 6363084 138138.69
188786.14 6363083.5 138138.27
188786.2 6363084.5 138138.69
188786.16 6363084 138138.31
188786.14 6363083.5 138137.89
188786.19 6363085 138138.78
188786.2 6363084.5 138138.31
188786.17 6363084 138137.92
188786.14 6363083.5 138137.5
188786.2 6363085.5 138138.38
188786.2 6363085 138137.94
188786.16 6363084.5 138137.56
188786.14 6363083.5 138137.13
188786.22 6363085.5 138137.98
188786.2 6363085 138137.55
188786.16 6363084.5 138137.16
188786.09 6363084 138136.81
188786.22 6363085.5 138137.58
188786.2 6363085 138137.16
188786.11 6363084.5 138136.84
188786.06 6363084 138136.44
188786.2 6363085.5 138137.2
188786.16 6363085 138136.84
188786.13 6363085 138136.75
188786.11 6363085 138136.63
188783.81 6363084 138136.42
188783.63 6363084 138136.38
188783.45 6363084 138136.34
188783.27 6363084 138136.33
188783.09 6363084 138136.3
188782.94 6363084 138136.23
188782.77 6363084 138136.16
188782.67 6363084 138135.86
188782.67 6363084 138135.28
188767.11 6363091.5 138147.31
188767.09 6363091 138147.5
188766.95 6363091 138147.61
188766.75 6363091 138147.55
188764.95 6363083 138140
188765 6363083 138140.42
188765 6363083 138140.72
188765.03 6363083 138140.86
188766.02 6363091 138147.63
188765 6363083 138141.09
188765.88 6363091 138147.66
188764.88 6363083.5 138141.45
188764.94 6363083.5 138141.75
188765.16 6363090.5 138147.66
188750.16 6363083 138120.47
188764.78 6363090 138147.64
188764.36 6363089.5 138147.66
188764.3 6363089 138147.58
188764.25 6363089 138147.63
188764.28 6363088.5 138147.59
188764.25 6363087.5 138147.5
188764.22 6363087 138147.58
188743.11 6363083 138125.8
188742.17 6363083 138131.17
188738.58 6363083 138134.03
188735.59 6363083 138134.66
188742.45 6363083 138139.63
188731.16 6363083 138139.38
188727.33 6363083 138145.36
188731.42 6363083 138146.81
188731.17 6363083 138156.38
188795.03 6363090 138146.83
188795.02 6363090 138146.63
188786.08 6363083 138138.98
188786.09 6363083.5 138138.69
188786.17 6363085 138138.75
188784.2 6363083.5 138139.48
188784.05 6363084 138139.48
188783.92 6363084 138139.42
188783.78 6363084 138139.39
188783.64 6363084 138139.34
188783.5 6363084 138139.3
188783.38 6363084 138139.25
188783.23 6363084 138139.2
188783.11 6363084 138139.14
188783.02 6363084 138139.03
188782.91 6363084 138138.91
188782.86 6363084 138138.66
188782.67 6363084 138136.47
188782.66 6363084 138136.06
188782.64 6363084 138135.63
188764.88 6363083 138137.06
188764.98 6363083 138137.66
188764.98 6363083 138137.97
188764.97 6363083 138138.16
188765 6363083 138138.41
188767.44 6363091 138147.72
188767.41 6363091 138147.75
188764.92 6363083.5 138139.02
188767.31 6363091 138147.78
188767.27 6363091 138147.8
188767.22 6363091 138147.8
188767.16 6363091 138147.8
188765 6363083.5 138139.69
188765.02 6363083.5 138139.78
188765.02 6363083.5 138139.86
188764.98 6363083.5 138139.91
188764.84 6363083.5 138140.09
188764.81 6363083.5 138140.14
188750.67 6363083 138119.03
188764.84 6363083 138140.16
188764.91 6363083 138141.36
188764.95 6363083 138141.56
188765.77 6363091 138147.61
188747.7 6363083 138119.36
188748.31 6363083 138121.23
188764.52 6363090 138147.67
188764.44 6363089.5 138147.59
188764.38 6363089.5 138147.64
188764.34 6363089 138147.58
188764.27 6363088 138147.55
188745.98 6363083 138126.69
188764.23 6363087.5 138147.59
188764.2 6363087.5 138147.59
188764.22 6363087 138147.56
188764.2 6363087 138147.59
188764.22 6363087 138147.53
188743.83 6363083 138127.11
188743.95 6363083 138127.36
188743.78 6363083 138127.34
188745.97 6363083 138129.72
188746.63 6363083 138130.55
188742.97 6363083 138129.72
188742.22 6363083 138131.91
188742.25 6363083 138134.42
188742.41 6363083 138134.75
188738.67 6363083 138136.61
188735.31 6363083 138137.06
188734.91 6363083 138138.38
188735.08 6363083 138138.77
188738.7 6363083 138140.94
188738.61 6363083 138141
188731.2 6363083 138139.33
188727.27 6363083 138142.31
188727.2 6363083 138142.42
188726.63 6363083 138142.39
188731.11 6363083 138143.84
188797.55 6363086.5 138146.38
188797.55 6363088 138146.45
188794.48 6363090 138146.97
188794.42 6363090 138146.94
188794.38 6363090 138146.89
188782.73 6363083.5 138142.47
188782.7 6363083.5 138142.45
188782.63 6363083 138142.11
188782.61 6363083 138142.08
188782.75 6363084 138142.2
188782.73 6363084 138142.16
188782.73 6363084 138142.09
188782.73 6363084 138142.03
188782.73 6363084 138141.97
188782.73 6363084 138141.91
188782.73 6363084 138141.84
188782.75 6363084 138141.77
188782.73 6363084 138141.7
188782.75 6363084 138141.63
188782.75 6363084 138141.56
188782.75 6363084 138141.5
188782.75 6363084 138141.42
188782.75 6363084 138141.36
188782.75 6363084 138141.28
188782.75 6363084 138141.2
188782.75 6363084 138141.14
188782.77 6363084 138141.06
188782.63 6363083.5 138140.72
188782.61 6363083.5 138140.67
188782.61 6363083.5 138140.59
188782.61 6363083.5 138140.52
188782.61 6363083.5 138140.44
188782.63 6363083.5 138140.34
188782.63 6363083.5 138140.28
188782.61 6363083.5 138140.2
188782.61 6363083.5 138140.13
188782.63 6363083.5 138140.03
188782.66 6363084 138140.13
188782.66 6363084 138140.05
188782.67 6363084 138139.92
188782.67 6363084 138139.84
188782.67 6363084 138139.77
188782.67 6363084 138139.67
188782.69 6363084 138139.59
188782.69 6363084 138139.42
188782.64 6363083.5 138139.09
188782.69 6363084 138139.16
188782.66 6363083.5 138138.81
188782.7 6363084 138138.86
188782.7 6363084 138138.67
188782.66 6363083.5 138138.34
188764.89 6363083 138135.05
188764.94 6363083 138135.33
188764.95 6363083 138135.58
188764.97 6363083 138135.98
188764.92 6363083 138136.17
188764.83 6363083 138136.09
188764.83 6363083 138136.19
188764.75 6363083 138136.14
188764.94 6363083.5 138136.83
188764.98 6363083.5 138137.08
188764.98 6363083.5 138137.42
188764.89 6363083.5 138137.53
188764.83 6363083.5 138137.5
188764.73 6363083 138137.48
188764.84 6363083 138138.83
188764.98 6363083 138139.45
188764.92 6363083.5 138139.81
188765 6363083 138139.72
188765 6363083.5 138140.11
188764.83 6363083 138140.08
188764.94 6363083 138141.5
188765.19 6363090.5 138147.64
188765.13 6363090.5 138147.67
188746.55 6363083 138125.09
188764.66 6363090 138147.63
188744.95 6363083 138126.48
188764.41 6363089 138147.61
188742.61 6363083 138126.72
188764.28 6363089 138147.59
188764.3 6363088.5 138147.59
188764.28 6363088.5 138147.63
188745.95 6363083 138130.36
188764.27 6363088 138147.56
188764.25 6363088 138147.53
188764.25 6363088 138147.56
188764.23 6363088 138147.59
188764.23 6363087 138147.53
188746.05 6363083 138132.75
188764.19 6363087 138147.56
188742.25 6363083 138131.72
188742.25 6363083 138132.06
188742.3 6363083 138132.2
188742.33 6363083 138134.56
188738.59 6363083 138136.33
188731.17 6363083 138138.98
188732.45 6363083 138139.95
188797.56 6363087.5 138146.39
188798.08 6363088 138146.31
188795.3 6363089.5 138146.67
188795.08 6363089.5 138146.63
188794.42 6363090 138146.97
188781.19 6363083 138145.5
188780.8 6363083 138145.45
188780.81 6363083 138145.38
188780.83 6363083 138145.28
188780.88 6363083 138145.13
188780.95 6363083 138144.95
188781.02 6363083 138144.88
188782.59 6363083 138142.72
188782.59 6363083 138142.67
188782.59 6363083 138142.64
188782.59 6363083 138142.58
188782.59 6363083 138142.5
188782.59 6363083 138142.47
188782.66 6363083.5 138142.53
188782.66 6363083.5 138142.48
188782.66 6363083.5 138142.44
188782.66 6363083.5 138142.39
188782.66 6363083.5 138142.36
188782.56 6363083 138142.08
188782.67 6363083.5 138142.45
188782.59 6363083 138142.16
188782.7 6363084 138142.53
188782.66 6363083.5 138142.22
188782.58 6363083 138141.92
188782.67 6363083.5 138142.31
188782.61 6363083 138142.02
188782.7 6363084 138142.39
188782.66 6363083.5 138142.08
188782.56 6363083 138141.8
188782.67 6363083.5 138142.17
188782.61 6363083 138141.88
188782.73 6363084 138142.23
188782.66 6363083.5 138141.94
188782.58 6363083 138141.66
188782.69 6363084 138142.03
188782.61 6363083 138141.73
188782.73 6363084 138142.09
188782.67 6363083.5 138141.8
188782.58 6363083 138141.52
188782.69 6363084 138141.89
188782.61 6363083.5 138141.59
188782.75 6363084 138141.94
188782.67 6363083.5 138141.64
188782.59 6363083 138141.34
188782.69 6363084 138141.73
188782.67 6363083.5 138141.55
188782.61 6363083.5 138141.39
188782.78 6363084 138141.7
188782.7 6363084 138141.58
188782.67 6363083.5 138141.41
188764.95 6363083.5 138134.34
188764.69 6363083 138134.81
188764.92 6363083 138136.48
188764.95 6363083 138136.58
188764.95 6363083 138136.67
188764.97 6363083 138136.75
188764.97 6363083 138136.81
188764.97 6363083 138136.88
188764.98 6363083 138136.73
188764.91 6363083.5 138137.17
188764.97 6363083 138137.06
188750.2 6363083 138118.52
188750.52 6363083 138119.11
188750.89 6363083 138119.73
188750.58 6363083 138119.47
188750.55 6363083 138119.58
188764.95 6363083.5 138137.73
188750.45 6363083 138119.77
188764.8 6363083 138137.44
188764.7 6363083 138137.48
188764.91 6363083 138138.78
188747.56 6363083 138119.72
188764.98 6363083 138138.98
188764.94 6363083.5 138139.2
188748.31 6363083 138121
188764.98 6363083 138139.16
188764.98 6363083 138139.2
188764.98 6363083 138139.27
188764.98 6363083 138139.33
188765 6363083.5 138139.63
188764.84 6363083 138140.06
188764.84 6363083 138140.16
188764.77 6363083 138140.13
188764.83 6363083 138140.08
188764.83 6363083 138140.13
188764.73 6363083 138140.09
188764.98 6363083 138140.64
188765.02 6363083.5 138140.95
188765.03 6363083.5 138141
188765 6363083 138140.81
188764.97 6363083 138140.94
188746.38 6363083 138125.25
188764.78 6363083 138141.45
188764.83 6363083 138141.36
188764.83 6363083 138141.44
188743.52 6363083 138125.44
188742.64 6363083 138126.77
188745.89 6363083 138130
188742.92 6363083 138130.06
188747.09 6363083 138133.28
188742.2 6363083 138131.2
188741.7 6363083 138131
188742.02 6363083 138131.28
188742.22 6363083 138131.63
188764.28 6363088.5 138147.55
188764.34 6363087.5 138147.58
188764.34 6363087.5 138147.59
188764.28 6363087.5 138147.58
188764.25 6363087.5 138147.59
188764.23 6363087 138147.55
188764.22 6363087 138147.59
188764.23 6363087 138147.56
188738.53 6363083 138137.8
188734.94 6363083 138138.08
188735.92 6363083 138138.67
188731.06 6363083 138140.52
188731 6363083 138140.73
188731.03 6363083 138140.83
188730.3 6363083 138140.89
188734.8 6363083 138142.16
188727.44 6363083 138141.98
188731.03 6363083 138142.94
188730.89 6363083 138143.14
188727.42 6363083 138144.11
188727.3 6363083 138144.2
188727.42 6363083 138144.34
188727.2 6363083 138146.53
